# .PCD v0.7 - Point Cloud Data file format
VERSION 0.7
FIELDS x y z
SIZE 4 4 4
TYPE F F F
COUNT 1 1 1
WIDTH 653
HEIGHT 1
VIEWPOINT 0 0 0 1 0 0 0
POINTS 653
DATA ascii
175.60684 -304.15543 1791
185.19844 -314.89545 1807
181.18703 -302.86121 1807
270.92905 -320.67169 1817
187.87366 -314.01135 1813.5
190.25694 -312.60449 1817
269.88531 -315.41824 1810
274.96268 -316.63809 1817
187.08441 -306.43381 1812.3334
194.29056 -308.57086 1817
295.93744 -285.9827 1817
307.23154 -280.33563 1817
315.29874 -284.36923 1817
323.36597 -284.36923 1817
294.48102 -278.71396 1813
304.96109 -276.07391 1815.5
314.64798 -276.23349 1813.25
322.77274 -275.79294 1813.6666
293.11389 -268.2348 1817
264.30853 -354.88297 1827
191.30403 -334.60394 1827
186.53081 -321.20114 1820
191.30403 -322.43652 1827
265.51358 -323.61197 1826
275.41666 -321.20114 1820
280.07111 -321.90707 1824
197.12042 -314.90488 1824.5
265.27097 -313.86243 1824.3334
275.41666 -313.12061 1820
280.3782 -314.15067 1826
185.06992 -301.90942 1825.5
192.41167 -304.47031 1824.6666
262.06363 -307.98645 1825.5
275.41666 -309.08035 1820
284.32535 -303.90973 1825.3334
294.86682 -302.95813 1823.6666
300.31686 -301.66135 1824
178.84248 -297.61221 1824
286.40137 -295.82736 1821.3334
294.93808 -294.66412 1820.8
305.75705 -295.95142 1826.25
312.97821 -296.07379 1827
291.57773 -288.87903 1820
305.91846 -286.21646 1823.6
314.48886 -289.51392 1824
322.8541 -289.75201 1825.5
306.0524 -273.01764 1822
315.81931 -272.71796 1820
327.94012 -276.75821 1820
272.42014 -261.59943 1827
283.49719 -268.67767 1820
295.24283 -264.15793 1826
308.41513 -269.26819 1824
262.17667 -355.65771 1831
194.01976 -343.93488 1833.5
200.50714 -344.5914 1837
264.203 -345.69766 1835.6666
326.92529 -344.5914 1837
337.1203 -344.5914 1837
187.55571 -331.09091 1830
194.68291 -333.05038 1833.3334
200.50714 -334.39639 1837
265.2196 -331.694 1833.3334
273.91122 -332.35739 1837
187.86317 -327.56454 1833
196.42914 -324.20135 1837
261.10742 -325.52997 1833
276.92993 -327.02844 1830
285.52219 -323.49542 1833
199.7431 -314.84106 1830
204.58516 -314.00635 1837
257.59921 -311.96735 1837
260.68008 -316.87231 1830
286.18896 -313.95282 1830.75
293.87106 -312.87381 1834.3334
305.92197 -313.38217 1833.3334
314.34866 -313.66672 1835
196.42914 -303.81137 1837
200.50714 -307.88934 1837
257.0383 -307.21893 1833
264.74255 -306.71609 1830
293.17981 -306.71609 1830
305.61917 -305.9519 1831.5
313.74908 -304.93628 1831.5
185.82861 -299.08069 1833
191.9323 -299.08069 1833
249.44321 -295.65533 1837
254.37334 -293.94464 1831.4
283.02362 -296.55994 1830
305.36719 -298.59119 1830
317.81488 -296.80469 1831.5
323.73499 -296.58548 1834.3334
252.96918 -286.87332 1833
331.63892 -285.51694 1833
325.67953 -270.15393 1830
335.0813 -279.34332 1837
272.86746 -266.09146 1830
273.91122 -258.95331 1837
297.4859 -256.14343 1831.5
197.49843 -354.66766 1847
203.64874 -352.61755 1847
258.0199 -357.40814 1840
275.40228 -350.56744 1847
317.59015 -353.70752 1842
326.03973 -353.99557 1843.5
197.17764 -341.81094 1844
203.18097 -344.64273 1842.75
258.0199 -349.23883 1840
263.9884 -344.47742 1843.6666
274.91043 -343.11072 1843.6666
317.59015 -347.57385 1842
325.90625 -346.68951 1842.75
333.38889 -342.92532 1842.6666
343.55444 -343.54843 1846
206.95421 -336.71695 1846
259.00146 -334.16663 1847
266.18924 -336.98483 1840
275.68237 -336.32773 1842
287.70294 -330.06641 1847
324.22025 -335.82214 1844.8334
333.32584 -336.04544 1842.3334
342.49847 -337.71741 1844
192.66525 -328.81549 1840
205.18428 -322.41434 1842.3334
257.52069 -324.36981 1843.75
282.52789 -328.81549 1840
293.45825 -323.47879 1844.5
303.93689 -321.69177 1846
314.10062 -321.60461 1845.5
209.79904 -315.7157 1847
254.31087 -314.9884 1842.75
296.82422 -316.56149 1840
319.98395 -313.15613 1844
197.49843 -301.36499 1847
203.64874 -307.51532 1847
249.85057 -300.22284 1840
254.34407 -305.48703 1843
263.659 -301.80194 1841.3334
320.50455 -309.5654 1847
184.04306 -295.08063 1843.6
249.85057 -292.05353 1840
333.8093 -294.21387 1845
183.00064 -288.82965 1845.5
252.44049 -286.5481 1844
336.35812 -284.50131 1844
331.54385 -275.71487 1840
271.30212 -260.36295 1847
274.35855 -255.29153 1840
300.00354 -252.16254 1847
283.14209 -247.65941 1844
295.90332 -248.06233 1847
198.56773 -360.71027 1857
204.5876 -360.41888 1855.5
248.03656 -364.83267 1857
255.86736 -360.12753 1854
194.44531 -356.58789 1857
206.03294 -355.24371 1850
210.59416 -351.89606 1854
257.85175 -353.85461 1853.5
295.44421 -352.46548 1857
303.44205 -352.18079 1855.5
312.8114 -351.13684 1850
335.39917 -351.13684 1850
342.29794 -351.89606 1854
212.3959 -345.30481 1851.75
259.98306 -345.72244 1854
275.84961 -347.02997 1850
287.1994 -344.22067 1857
294.59912 -346.78134 1856
307.5611 -348.06171 1855.5
316.34875 -343.78296 1854.6666
323.4256 -343.29385 1852
197.81923 -330.60254 1850
202.36267 -331.31735 1854
213.30237 -336.74472 1853.6666
255.86736 -331.31735 1854
263.52902 -338.81625 1850
284.37045 -337.12469 1852
292.90903 -331.31735 1854
318.11743 -333.91467 1857
324.03741 -331.58539 1855.5
333.9686 -333.28143 1853.5
342.29794 -335.43311 1854
206.03294 -326.49567 1850
212.82574 -325.40515 1855.5
246.52885 -324.8085 1856
252.89424 -325.53848 1852.3334
305.20657 -327.14279 1853.6666
313.99503 -327.73105 1857
322.23981 -323.60867 1857
212.82574 -315.11243 1855.5
245.77612 -315.1113 1855.5
251.20845 -318.28195 1850
321.71924 -318.97012 1854
204.20226 -304.23871 1852
239.79176 -302.99664 1857
245.4444 -304.40186 1853
191.49207 -294.43661 1855
247.27966 -293.84943 1851.3334
338.18219 -298.39139 1854
342.29794 -290.15991 1854
186.20052 -286.50702 1857
254.01315 -284.21771 1855.5
256.28137 -278.26224 1857
268.64859 -261.77261 1857
274.3103 -253.04996 1853.5
305.75021 -253.52779 1857
282.84998 -247.14273 1855.5
293.383 -245.283 1857
301.05933 -246.87411 1853.5
207.92622 -375.08652 1867
249.37224 -370.94193 1867
207.92622 -366.79733 1867
212.07082 -362.65271 1867
246.84021 -364.03741 1863.5
252.56633 -361.293 1860
319.83051 -362.65271 1867
328.11969 -362.65271 1867
214.45305 -356.48874 1863.6666
220.36003 -350.2189 1867
257.45447 -354.0755 1865.5
286.67368 -354.36353 1867
290.35098 -353.7941 1864
219.53383 -344.77676 1860
222.25528 -341.655 1865.5
257.24744 -345.51822 1864
261.38535 -341.38028 1864
289.72791 -340.64771 1860
295.2052 -344.11523 1862
304.58508 -344.87152 1865
312.94058 -343.26611 1863
207.14664 -332.38956 1860
215.82643 -334.42117 1863.6666
225.48311 -335.80051 1863.6666
249.37224 -333.6405 1867
255.10612 -335.07959 1863.5
289.72791 -336.51865 1860
297.19412 -335.80566 1863.6666
304.91443 -335.26605 1864.5
312.77371 -334.81595 1862
337.21213 -332.38956 1860
346.2132 -335.17334 1864
215.86801 -328.96643 1864
224.75217 -324.4436 1864.75
234.58226 -322.88855 1864.75
242.07497 -324.82849 1864
318.63135 -328.2605 1860
326.20868 -325.51224 1862
332.26431 -327.42358 1867
215.63638 -314.14398 1862
223.60356 -315.30234 1866.4
235.42999 -315.51071 1866
240.17915 -313.80878 1860
327.59244 -312.41467 1864
199.63702 -300.48367 1867
207.14664 -303.48611 1860
211.73006 -308.27673 1864
236.74808 -306.45584 1865.5
240.43741 -303.80801 1862
335.14761 -303.48611 1860
195.33536 -294.02869 1865.5
244.61467 -295.59317 1862.3334
344.14423 -295.86292 1864
184.21136 -284.92679 1864.6666
193.16389 -285.59354 1864.5
248.43726 -286.96988 1860
185.22717 -275.96994 1863.8
194.38617 -274.27261 1861.375
205.49751 -273.06955 1863.75
212.07082 -273.54376 1867
256.6954 -274.5827 1860
335.14761 -270.45361 1860
198.04163 -265.66116 1865
205.41399 -264.68735 1863
212.07082 -265.25458 1867
203.78162 -259.03766 1867
267.55444 -256.51611 1863.75
277.93713 -250.34552 1864
306.90274 -250.34552 1864
310.3732 -253.93736 1860
282.52905 -246.60385 1867
304.75589 -244.07703 1863.5
205.71185 -373.31982 1872
243.87 -372.03467 1872.5
196.64421 -364.7894 1878
204.21822 -367.58316 1871
215.40997 -366.39514 1872
221.18623 -364.01242 1874
244.00301 -363.91141 1873.5
250.84149 -360.62039 1878
342.55997 -360.62039 1878
221.00919 -357.48419 1872.5
254.37685 -355.56042 1873.3334
287.28787 -350.96924 1871
291.44135 -359.27621 1871
303.90179 -359.27621 1871
337.12967 -359.27621 1871
227.87709 -345.61661 1872
256.03516 -344.84262 1875.3334
223.60114 -332.97083 1871
235.38106 -334.13531 1874.4
247.40022 -337.48392 1873
254.06001 -338.50879 1871
337.67023 -330.73126 1874
346.293 -332.40991 1875.6666
350.89801 -331.43723 1878
334.22192 -323.09918 1878
228.32097 -311.59073 1875.6666
233.2926 -313.58789 1871
335.9505 -312.34143 1876
206.68475 -301.69073 1874.5
214.77563 -307.60577 1872.5
225.67 -307.59225 1876.6666
234.73622 -304.77063 1874.25
344.00604 -303.76752 1874.5
202.79082 -295.84183 1877
238.08063 -295.68311 1876
241.79326 -295.13202 1872.5
203.38792 -284.42331 1874.2858
213.09312 -283.19379 1876
225.82738 -281.40897 1878
246.20888 -287.1264 1874.5
253.12297 -282.24402 1874.3334
346.729 -289.74701 1878
184.13716 -273.07092 1878
217.02609 -274.56937 1874
225.50966 -276.84628 1875.3334
254.46738 -276.64944 1874
193.62056 -265.79361 1875.6666
200.38553 -260.00888 1874
216.10187 -263.26773 1875
223.50681 -264.45096 1876
242.50346 -260.56384 1878
257.09503 -260.56384 1878
264.65405 -261.8775 1872.5
338.39096 -260.56384 1878
205.72047 -257.05774 1875.25
257.09503 -256.39484 1878
264.36133 -253.25438 1875.3334
272.96768 -251.48712 1872.5
314.53912 -251.48712 1872.5
323.45679 -251.95718 1876
333.51007 -255.84872 1874
284.19366 -245.97229 1878
294.61624 -243.88777 1878
308.0553 -242.97871 1871
313.37683 -248.05679 1878
305.03879 -239.71873 1878
305.03879 -225.12717 1878
197.69131 -370.92307 1888
216.86949 -375.84909 1884.6666
224.75554 -374.8179 1886.5
233.12967 -372.72397 1886.5
251.2422 -377.89917 1881
331.81036 -370.92307 1888
201.13403 -369.54782 1881
225.11688 -365.88712 1883.6666
234.45921 -366.17334 1885.1428
242.89085 -361.19647 1881
322.22879 -369.54782 1881
335.46771 -366.14908 1885
348.57526 -362.54062 1888
226.66911 -353.59543 1885
247.5919 -357.77997 1885
235.03824 -345.22632 1885
246.15623 -345.17041 1884.6666
251.2422 -346.58157 1881
338.93152 -327.79102 1881
342.28845 -326.91522 1888
344.38403 -312.24597 1888
216.59929 -304.34338 1882.3334
223.56171 -304.34338 1882.3334
230.3638 -302.73691 1881
348.02139 -307.56525 1885
209.93086 -295.01157 1885
214.11543 -295.01157 1885
225.13692 -295.19937 1886.2
233.62888 -294.14423 1883.2858
352.76648 -295.48108 1888
209.4854 -286.03418 1881
218.06837 -284.25049 1883
223.72203 -285.04779 1883.6666
234.78737 -284.24899 1883
244.62708 -283.65295 1883.6666
344.38403 -282.90741 1888
224.10028 -273.50714 1881
235.28871 -275.077 1887
245.69333 -278.49475 1886.5
253.8053 -276.10388 1884.5
188.80753 -267.52554 1883
195.22922 -261.4657 1884.5
223.56465 -266.73856 1882.3334
235.72685 -263.88022 1883.8
246.28241 -264.42172 1885.6666
254.7435 -264.49951 1883.75
205.5592 -252.94209 1883.3334
215.47462 -255.91014 1884.6666
222.83864 -257.76007 1888
235.41231 -257.76007 1888
245.59648 -255.35895 1885.75
254.37396 -253.67264 1881
332.66797 -252.62871 1881
340.19284 -255.66446 1888
208.00232 -249.17953 1886.5
210.26498 -243.09082 1888
224.93425 -240.99519 1888
235.16071 -240.73991 1886
245.62877 -244.92781 1886
254.07245 -244.99164 1886.5
266.38513 -246.85442 1884.75
274.79156 -248.9814 1885
284.64764 -244.27736 1881
305.8465 -240.35696 1883
316.55319 -244.72801 1884.5
325.2666 -249.17953 1886.5
210.26498 -236.80397 1888
252.17719 -236.80397 1888
306.17578 -234.33542 1885
310.85428 -232.61276 1888
210.26498 -228.42154 1888
301.99121 -228.05858 1885
227.51086 -380.1091 1892
231.71095 -380.1091 1892
203.05876 -377.2998 1899
235.91106 -375.90903 1892
335.85141 -375.19196 1899
240.49188 -363.8848 1895
227.51086 -359.10861 1892
231.89465 -357.29327 1893.5
245.68578 -355.37747 1894.5
252.71146 -354.90851 1892
244.31126 -346.5083 1892
345.29605 -325.67984 1893
352.73148 -327.48129 1895.3334
349.31378 -312.9075 1892
355.89752 -313.15558 1893.5
219.11066 -300.30722 1892
353.88757 -304.82697 1894
219.11066 -294.00702 1892
223.31075 -296.10709 1892
349.86765 -288.16309 1895
185.50986 -270.90649 1892
235.91106 -270.90649 1892
245.4888 -272.9588 1894.6
254.24506 -272.44971 1893
186.1962 -267.69315 1899
190.01076 -262.92252 1895
198.11015 -258.30618 1892
203.05876 -250.8306 1899
219.28436 -252.20416 1893.5
226.04594 -253.50516 1893.8
234.18173 -252.40561 1895
240.49188 -252.40561 1895
206.8378 -246.09549 1895
216.66006 -244.94377 1892.6
225.4108 -245.70589 1892
233.811 -245.70589 1892
240.11116 -245.70589 1892
263.71719 -244.10245 1892.6
275.79233 -244.90672 1896.6666
284.43921 -243.7973 1893.5
297.04617 -241.69725 1893.5
319.91306 -241.50578 1892
326.77551 -244.02234 1895.25
335.3201 -246.22017 1896
207.2744 -233.96803 1899
215.75056 -234.78561 1892
225.76822 -235.57858 1895
233.99637 -235.39044 1893.5
244.65559 -235.53529 1894.6666
255.96193 -234.91631 1895.3334
263.62906 -237.68195 1895
270.509 -238.18365 1899
303.59329 -235.57858 1895
314.64667 -236.15428 1894
323.2045 -233.96803 1899
207.2744 -229.75238 1899
217.18098 -229.08698 1893.5
225.59119 -229.08698 1893.5
234.42889 -227.4026 1897
243.64073 -228.18585 1897.6666
295.59219 -228.18587 1897.6666
308.44977 -221.32111 1899
311.75986 -226.98358 1893.5
199.57608 -378.69058 1906
345.55176 -370.22821 1906
237.28264 -361.19644 1903
241.88788 -361.76587 1906
237.28264 -356.97192 1903
359.79373 -310.5022 1903
364.59207 -315.2229 1906
356.12973 -294.06699 1906
195.34491 -260.21753 1906
199.26195 -255.58344 1903
345.89438 -255.71773 1904
205.75912 -245.21695 1904.5
279.96851 -243.29282 1906
283.75235 -242.90988 1903
342.89563 -247.13441 1903
207.71098 -238.68535 1903
245.73167 -230.23633 1903
254.58141 -230.59929 1906
264.95233 -234.64566 1904.5
275.7373 -239.06163 1906
288.43085 -239.06163 1906
295.48282 -237.65125 1906
300.65042 -238.68535 1903
317.54849 -230.23633 1903
324.14059 -234.64232 1904.5
334.1434 -235.88097 1904.7142
237.28264 -221.78729 1903
243.81311 -224.0777 1904.5
250.35022 -226.36812 1906
318.0491 -226.36812 1906
347.18121 -380.47873 1915
346.27698 -375.24524 1910
242.39551 -358.285 1910
362.44064 -308.53091 1917
192.21667 -261.71933 1917
200.72787 -253.20813 1917
348.94421 -252.67979 1913
204.55577 -244.18634 1913
281.58426 -240.44131 1917
346.5506 -246.11823 1911.5
204.34192 -235.44873 1911
259.35574 -231.08324 1910
274.19595 -235.3233 1910
284.79608 -239.56334 1910
337.79684 -231.08324 1910
345.05786 -238.06268 1915
204.55577 -227.19948 1913
247.02296 -222.95274 1913
253.65573 -225.3092 1915
260.30627 -227.67455 1917
325.07666 -226.84319 1910
310.72375 -218.70604 1913
196.88225 -377.40634 1921
368.03525 -313.92865 1924
364.52039 -306.0213 1928
359.49298 -292.57297 1924
196.88225 -258.00095 1921
201.87968 -250.38106 1928
355.96033 -250.38106 1928
350.95068 -245.59044 1924
265.11392 -232.41408 1921
270.35995 -233.26099 1928
346.67957 -232.77704 1924
210.43973 -224.70094 1928
256.58493 -223.88512 1921
263.66837 -226.60786 1926
333.86612 -228.50591 1924
239.52704 -219.62065 1921
243.7915 -219.62065 1921
176.56514 -392.43414 1932
181.13487 -388.74792 1935
193.72072 -375.27853 1932
365.27664 -302.36728 1932
194.02153 -259.88123 1935
356.97577 -257.53198 1933.5
202.61266 -244.84677 1935
352.40994 -242.32271 1932
198.72705 -230.2874 1939
202.29852 -235.88937 1932
275.70834 -232.01616 1935.5
283.7876 -233.74492 1932
204.44298 -227.31158 1932
249.8638 -221.22121 1935
254.68472 -221.67851 1939
266.63199 -225.16713 1932
275.4201 -229.63419 1933.5
340.0705 -229.81233 1935
176.56514 -208.01154 1932
181.13487 -206.18677 1935
173.25711 -392.51184 1943
194.8237 -390.35516 1943
363.04306 -291.1489 1943
182.25818 -270.1373 1947
190.51038 -265.26898 1943
358.72974 -265.26898 1943
199.54697 -257.17072 1947
358.72974 -248.01572 1943
196.52885 -233.95769 1945.6666
355.14603 -239.88191 1947
203.86916 -226.91531 1947
259.52344 -222.13582 1943
263.83676 -222.13582 1943
274.62006 -226.44913 1943
319.90991 -226.44913 1943
214.67465 -218.27092 1947
186.58037 -205.30434 1947
373.77383 -314.48587 1954
368.67984 -300.85553 1950
200.2644 -253.75755 1954
200.53772 -245.41951 1956.6666
360.02213 -244.58037 1950
191.58893 -234.23775 1954
348.45929 -232.54395 1958
195.92665 -227.73114 1954
200.2644 -227.73114 1954
269.66818 -223.39342 1954
323.88989 -225.56229 1954
182.53902 -214.2784 1950
191.98112 -210.81087 1958
243.14301 -218.60724 1950
317.38327 -219.05566 1954
186.86786 -209.94952 1950
191.98112 -206.46425 1958
371.51584 -298.80762 1965
192.37332 -263.50748 1962
195.78868 -253.9024 1963.5
194.89423 -244.34285 1965.5
363.53003 -242.59245 1969
188.68863 -233.85037 1969
192.66747 -229.01315 1965
249.37549 -220.28883 1965
256.17697 -220.51305 1967
276.10931 -225.10831 1969
280.48038 -225.10831 1969
327.89429 -224.651 1965
188.01782 -215.59703 1962
195.60602 -214.51149 1965.3334
201.80174 -211.99519 1969
219.28589 -216.36624 1969
225.38364 -215.92668 1965
188.68863 -203.25313 1969
195.7397 -204.4641 1966.6666
201.80174 -207.62416 1969
264.91461 -203.04666 1967
271.73831 -203.25313 1969
186.31146 -196.49457 1967
265.18173 -198.8821 1969
271.73831 -198.8821 1969
219.28589 -181.39795 1969
219.06314 -174.66159 1967
222.86179 -176.39755 1962
263.53049 -221.18568 1973
204.40164 -214.61581 1973
214.3634 -214.72348 1974
226.53284 -212.64119 1975
259.15057 -203.66603 1973
268.45358 -208.46774 1977
274.75629 -206.06689 1975
184.87482 -195.10378 1975
202.2117 -194.9062 1973
259.41327 -197.29373 1975
266.99063 -193.83842 1977
272.84238 -193.10695 1977
204.81604 -186.52376 1977
215.35144 -181.76646 1973
222.37123 -184.32936 1977
228.95442 -173.35738 1977
216.22462 -175.90695 1981
229.41766 -178.10579 1981
