# .PCD v0.7 - Point Cloud Data file format
VERSION 0.7
FIELDS x y z
SIZE 4 4 4
TYPE F F F
COUNT 1 1 1
WIDTH 450
HEIGHT 1
VIEWPOINT 0 0 0 1 0 0 0
POINTS 450
DATA ascii
-253.04024 -586.35358 1656
-249.36404 -584.5188 1656
-249.36404 -579.00122 1656
-254.72107 -593.94904 1667
-255.28876 -585.02167 1662.6666
-246.87473 -589.18622 1664
-260.12692 -601.59338 1678
-263.38022 -593.08112 1675
-257.49484 -597.94385 1673
-259.50684 -587.15161 1674
-267.06323 -591.5343 1686.5
-264.79541 -588.79108 1684
-255.67538 -585.57379 1685.5
-269.80945 -595.3443 1692
-225.533 -548.45276 1698
-259.91635 -587.18274 1701
-226.13071 -544.23547 1702.5
-224.23932 -538.56799 1702.5
-203.99193 -528.62329 1707
-269.19818 -590.97992 1712
-253.99612 -590.97992 1712
-159.54045 -581.60962 1718
-163.35429 -570.16809 1718
-159.54045 -573.98193 1718
-140.47128 -570.16809 1718
-134.75055 -570.16809 1718
-159.26186 -569.17249 1715
-235.81712 -543.47125 1718
-219.79149 -541.57324 1712
-231.19305 -533.97223 1712
-201.49263 -532.02972 1718
-206.94116 -525.6189 1715.75
-266.32779 -516.77441 1718
-165.98099 -591.80963 1725.5
-166.57576 -585.25732 1725
-153.98654 -582.10052 1727
-142.87878 -581.72394 1724
-137.13474 -583.64081 1724
-165.83838 -575.98822 1724
-155.31036 -575.98486 1724
-143.82336 -575.18469 1721.6
-137.13474 -577.90015 1724
-240.46785 -568.33221 1724
-210.21579 -565.48737 1727
-206.38199 -565.48737 1727
-167.75194 -568.33221 1724
-143.00143 -568.82672 1725.5
-137.13474 -568.33221 1724
-206.02348 -545.36926 1724
-202.19633 -530.06067 1724
-133.53955 -534.81689 1727
-129.48042 -533.88782 1724
-267.25793 -522.40637 1724
-237.05247 -523.31543 1727
-204.9754 -523.13428 1723.25
-198.71436 -527.14923 1727
-263.43079 -512.8385 1724
-171.87767 -515.64783 1727
-274.43387 -502.39484 1721
-263.88919 -507.98022 1727
-244.72012 -481.14349 1727
-262.30566 -475.48343 1725
-254.91936 -474.02109 1723.4
-244.72012 -477.30969 1727
-251.94931 -468.82623 1724
-247.276 -468.36414 1727
-242.56009 -600.30029 1739
-180.63692 -601.70935 1737.5
-276.82578 -599.26465 1736
-262.65323 -593.86749 1731.5
-255.63324 -597.33447 1736
-174.13577 -595.56158 1734.2
-164.77832 -595.66431 1733
-142.18834 -592.57935 1739
-242.56009 -584.85846 1739
-172.77339 -585.77643 1736
-166.41553 -585.67206 1730
-145.29292 -585.67206 1730
-134.00349 -584.76416 1733
-213.60669 -573.27716 1739
-207.45752 -572.28815 1736
-172.27577 -574.48029 1731
-133.77151 -577.99109 1730
-246.42055 -565.55621 1739
-210.58096 -562.62921 1730
-204.53203 -564.88727 1733
-242.14165 -553.01917 1736
-207.09901 -552.06348 1733
-241.72319 -544.3692 1733
-203.60373 -541.45782 1736
-134.00348 -546.29614 1733
-241.93242 -535.21259 1734.5
-199.57733 -535.21594 1734.5
-164.78055 -532.82782 1733
-130.60699 -534.67261 1739
-263.67419 -522.87183 1734
-242.14165 -529.89636 1736
-210.94614 -521.28644 1733
-205.53062 -522.18884 1736
-199.05956 -524.22449 1730
-166.70412 -525.13354 1733
-260.73297 -515.06787 1731.5
-258.00189 -519.23077 1739
-174.8383 -514.2818 1731
-168.62769 -513.59216 1733
-262.76877 -505.6499 1734.8
-222.87268 -506.77365 1736
-173.85449 -508.75235 1734
-273.20782 -495.64352 1737.5
-265.72281 -494.13782 1739
-256.56671 -493.2114 1738
-244.49033 -492.20761 1739
-136.96375 -493.2114 1738
-272.50024 -484.742 1733
-265.49362 -485.99902 1737.5
-255.52031 -485.36884 1735.25
-245.4003 -484.78906 1731.8
-234.95776 -485.46173 1734.2
-225.94286 -485.81976 1730
-268.18805 -478.13885 1730
-244.71436 -475.3486 1731.5
-237.87605 -475.12085 1733
-222.87268 -472.08954 1736
-253.26459 -463.57944 1733
-243.85266 -467.83118 1734.5
-223.25783 -469.04492 1739
-193.36983 -615.04834 1748
-251.14455 -602.37146 1745
-246.84566 -601.33588 1742
-205.50839 -604.90149 1745.6
-172.02747 -607.28748 1748
-270.04831 -597.46875 1742
-247.69588 -597.58643 1748
-181.72855 -599.52661 1748
-177.54288 -594.6239 1745
-158.44595 -595.64618 1748
-134.92473 -592.68372 1745
-244.82996 -583.33673 1746
-205.01112 -580.12445 1748
-177.54288 -583.00256 1745
-246.84566 -574.26611 1742
-232.17415 -576.24408 1748
-220.15437 -575.25507 1745
-204.65706 -575.25287 1745
-251.14455 -567.50751 1745
-247.69588 -560.72229 1748
-201.13069 -568.48322 1748
-173.96768 -560.72229 1748
-247.69588 -552.96143 1748
-247.27077 -544.26489 1745
-167.71582 -536.05286 1743.5
-262.31412 -527.86072 1742
-258.44699 -523.99365 1742
-242.97853 -527.86072 1742
-239.52321 -524.89606 1745
-214.16112 -520.57434 1743.5
-203.42694 -521.31726 1742.75
-193.36983 -521.91797 1748
-181.41664 -521.02222 1745
-173.37053 -523.99365 1742
-169.79533 -528.76978 1745
-259.18881 -513.86078 1747
-225.96834 -511.33453 1745
-208.53305 -517.1485 1745
-185.60896 -518.0376 1748
-166.01221 -513.56891 1746
-156.2338 -513.27478 1745
-270.04831 -500.79099 1742
-264.47351 -501.2222 1743.5
-259.11462 -504.02155 1746.5
-222.09125 -505.52719 1745
-252.14574 -495.92007 1743
-245.12465 -497.35175 1743.5
-235.38048 -495.27554 1743
-142.67892 -493.90588 1745
-135.16336 -490.87454 1748
-233.31076 -481.45541 1742
-235.78004 -476.09799 1746
-227.9019 -470.66324 1745
-239.11142 -469.8541 1742
-213.86749 -610.41425 1757
-197.92732 -617.15948 1754
-254.38338 -601.58453 1754
-235.11719 -605.99609 1755.5
-225.56871 -606.51385 1757
-213.13715 -604.44263 1751
-204.11647 -604.56366 1757
-248.12097 -592.78137 1751
-237.26997 -592.86243 1757
-208.40694 -594.03253 1757
-182.66422 -598.71301 1757
-178.45856 -593.797 1754
-152.88724 -596.66846 1751
-147.05659 -596.66846 1751
-135.39534 -596.66846 1751
-252.43985 -582.11572 1754
-245.66682 -584.04559 1752
-215.6351 -582.61353 1755.5
-207.83762 -586.51062 1755.5
-178.30594 -585.51172 1752.5
-131.73357 -589.90326 1754
-276.27408 -571.41016 1757
-252.00807 -577.23303 1751
-201.82108 -578.22205 1754
-198.26585 -571.41016 1757
-176.51169 -574.32825 1754
-276.27408 -567.5097 1757
-172.32269 -565.57172 1751
-248.12097 -557.79755 1751
-167.06258 -548.00769 1757
-271.90857 -535.39069 1754
-258.27713 -531.49695 1754
-248.12097 -534.47504 1751
-197.70164 -534.77802 1752
-256.33359 -525.65637 1754
-246.81177 -528.05444 1755.5
-235.31976 -524.60522 1757
-229.07732 -523.70947 1754
-195.3315 -525.00958 1754
-186.24606 -523.70947 1754
-178.15334 -526.70087 1751
-256.772 -512.90399 1757
-228.68552 -515.03955 1751
-185.92752 -515.03955 1751
-170.67107 -512.0282 1754
-254.88953 -505.25119 1753
-234.40405 -505.82834 1755
-228.68552 -507.26538 1751
-147.30855 -504.24075 1754
-139.28242 -491.71698 1751
-237.26997 -481.70068 1757
-137.80949 -489.50153 1757
-235.11719 -473.4953 1755.5
-243.12057 -469.99945 1757
-167.34782 -611.45648 1760
-273.76221 -603.73669 1766
-253.73514 -600.75757 1763
-225.15617 -606.31219 1764
-216.92319 -607.6604 1766
-203.54703 -602.80212 1769
-195.36105 -609.62061 1766
-187.20172 -600.75757 1763
-155.8941 -604.67133 1763
-144.15291 -604.67133 1763
-134.711 -604.25452 1767.5
-253.87907 -593.26422 1764
-229.86095 -599.73529 1760
-216.24036 -594.69342 1763.6
-204.0923 -595.64203 1765.25
-183.80782 -594.61395 1768
-278.16098 -587.09393 1769
-258.5257 -585.13043 1769
-238.08022 -589.01636 1763
-224.56807 -583.64697 1764.5
-214.23265 -588.0141 1760
-202.85664 -585.10266 1763
-199.28145 -582.17792 1766
-183.91177 -587.09393 1769
-281.13126 -577.27521 1763
-258.5257 -575.31281 1769
-203.20183 -570.41669 1766
-198.60439 -576.29285 1760
-179.37425 -573.36145 1763
-179.52687 -567.97205 1764.5
-254.59868 -555.67755 1769
-167.91832 -554.73517 1766
-273.92163 -543.28143 1767
-264.19376 -543.43518 1767.5
-255.56367 -545.73871 1764.8
-202.51144 -548.94342 1760
-175.75911 -542.974 1766
-265.0246 -537.22217 1760
-254.8958 -536.53027 1762
-194.16266 -532.82269 1767
-187.83882 -532.11523 1769
-175.60983 -536.63892 1764.5
-254.8958 -526.09589 1762
-245.90767 -526.39667 1763
-230.64456 -523.37207 1766
-182.9761 -529.40802 1760
-148.56831 -520.33411 1769
-254.02077 -515.23712 1765
-244.57181 -512.04541 1767.5
-236.12335 -514.65723 1763
-171.83871 -511.6109 1766
-164.08635 -515.82318 1767
-151.71954 -517.68683 1760
-253.30338 -509.87268 1760
-245.90324 -506.82803 1763
-147.81245 -502.05853 1760
-146.65009 -494.80426 1764.8
-236.32593 -472.00574 1764.5
-287.63187 -614.10822 1779
-232.34239 -610.159 1779
-160.89334 -612.72742 1775
-145.45892 -614.10822 1779
-275.16403 -604.84668 1775
-265.91101 -606.20972 1779
-259.18335 -602.36536 1773.5
-231.81998 -600.90631 1775
-226.41852 -602.26044 1779
-219.62704 -603.8244 1772
-194.5242 -605.27039 1776.25
-263.9364 -590.41272 1779
-259.98712 -594.36194 1779
-236.29166 -594.36194 1779
-223.75 -594.49463 1773.5
-219.62704 -599.89069 1772
-200.52274 -595.6684 1777
-194.16632 -593.04553 1779
-188.26355 -596.29327 1773
-275.98315 -585.99756 1775.2
-196.15622 -585.33948 1773.2
-185.21965 -584.02527 1774
-275.16403 -575.29395 1775
-259.98712 -570.66644 1779
-194.60329 -577.91455 1777
-185.99059 -576.38428 1776.3334
-177.05292 -562.76794 1779
-259.98712 -554.86951 1779
-200.74841 -556.84412 1779
-174.53867 -553.15405 1773.5
-272.96466 -549.21698 1773.5
-265.09058 -549.21698 1773.5
-197.44666 -545.12622 1773
-176.35625 -548.75244 1772
-184.81575 -538.66846 1777.6666
-135.28094 -537.86041 1775
-253.41785 -523.92261 1774.5
-244.19014 -524.59192 1779
-237.52798 -523.62793 1773.5
-251.09673 -517.28278 1772
-245.19615 -517.28278 1772
-153.0126 -518.15857 1775
-152.75398 -503.51483 1772
-153.12755 -494.88486 1776.3334
-149.07222 -490.57599 1775
-142.91971 -489.74686 1772
-135.05231 -489.74686 1772
-286.13898 -615.1438 1782
-224.82239 -611.18793 1782
-155.59398 -615.1438 1782
-145.70421 -615.1438 1782
-133.83649 -611.18793 1782
-280.67685 -608.25427 1785
-272.2933 -603.27606 1782
-265.27164 -605.30731 1788
-201.08694 -603.27606 1782
-197.46289 -604.29169 1785
-130.09923 -602.31042 1785
-284.16104 -591.40839 1782
-274.0748 -597.68524 1785
-268.3374 -591.40839 1782
-233.12601 -596.36652 1785
-195.15308 -599.32019 1782
-284.16104 -587.45245 1782
-273.6261 -584.23163 1784.25
-266.77032 -585.26605 1787.4
-193.17513 -583.49652 1782
-189.21921 -583.49652 1782
-272.75171 -576.55371 1785
-267.91782 -574.87653 1788
-195.64423 -577.03821 1786.5
-188.11293 -573.58899 1784
-265.12549 -561.33173 1787
-272.2933 -555.80518 1782
-266.35944 -555.80518 1782
-181.76523 -555.22412 1786.5
-175.37354 -559.76111 1782
-193.82555 -545.76886 1788
-185.47345 -546.53033 1784
-193.17513 -539.98151 1782
-136.04309 -534.94678 1785
-246.78577 -528.55835 1783.5
-157.8372 -493.33313 1785
-152.72398 -487.27939 1787
-145.01852 -488.59052 1785.75
-136.04309 -487.39258 1785
-150.66792 -623.26874 1794
-144.85321 -623.96356 1796
-285.59619 -610.29883 1791
-134.76752 -615.46735 1794.5
-284.71667 -606.69702 1798
-277.87692 -604.83948 1792.5
-269.69263 -606.32294 1791
-126.77265 -603.35602 1794
-290.0571 -595.39093 1794
-283.60825 -598.37115 1791
-269.69263 -586.44348 1791
-269.69263 -570.53998 1791
-193.18681 -572.92932 1794.3334
-190.91815 -564.78693 1798
-184.36697 -563.05933 1792.5
-196.91197 -554.9483 1792
-186.7188 -558.17603 1796
-134.51244 -534.7569 1791
-162.97815 -486.95416 1798
-154.6646 -483.93042 1794.2
-144.87366 -484.48257 1796.25
-139.02959 -482.96274 1798
-156.64175 -479.897 1794
-143.49829 -630.74768 1804
-147.25774 -629.69879 1801
-135.26349 -621.70258 1801
-131.7027 -619.76239 1807
-291.4314 -604.2157 1802.5
-127.2673 -609.70831 1801
-296.17038 -599.70532 1807
-195.3974 -564.20148 1802.5
-193.23575 -557.73315 1801
-163.79396 -483.37451 1807
-147.25774 -481.7695 1801
-155.59871 -478.83255 1805
-140.49875 -635.29297 1817
-136.19452 -628.02661 1813.5
-128.39795 -623.19214 1817
-297.31769 -610.0824 1814
-127.90329 -616.77319 1810
-296.66208 -604.71899 1810
-166.96129 -482.11731 1812.3334
-144.26425 -481.13168 1813.6666
-148.81126 -640.38214 1820
-136.69048 -632.30157 1820
-303.50421 -610.39868 1827
-303.50421 -606.3429 1827
-145.56645 -643.9007 1830
-301.08743 -638.2077 1837
-299.94012 -631.71332 1830
-135.51961 -638.32813 1831.5
-129.31659 -631.71332 1830
-304.00259 -615.4635 1830
-153.69136 -481.40216 1830
-149.87421 -482.19135 1833
-132.35266 -642.6864 1844
-125.93856 -626.99597 1840
-156.74152 -482.51208 1842
-146.9187 -485.87421 1847
-143.05046 -650.93787 1850
-171.79851 -486.66339 1850
-163.93848 -487.71564 1854
-151.83655 -484.38235 1857
-143.05046 -486.66339 1850
-140.22038 -656.91949 1867
-131.43652 -650.32745 1860
-127.78658 -640.34113 1867
-164.77075 -488.1424 1863.5
-169.86711 -488.81668 1874
-137.09616 -661.84552 1881
-128.7448 -649.31848 1881
-166.67963 -491.68591 1885
