# .PCD v0.7 - Point Cloud Data file format
VERSION 0.7
FIELDS x y z
SIZE 4 4 4
TYPE F F F
COUNT 1 1 1
WIDTH 478
HEIGHT 1
VIEWPOINT 0 0 0 1 0 0 0
POINTS 478
DATA ascii
-145.32782 245.37622 1827
-136.69048 248.47635 1820
-142.04524 250.79729 1837
-137.44151 253.90408 1830
-138.71829 260.36295 1847
-143.05046 256.67899 1850
-135.34694 265.89499 1857
-189.65038 196.55228 1864
-169.2326 230.02544 1867
-144.13301 262.75937 1864
-131.43652 266.32455 1860
-194.51607 197.29041 1871
-192.74789 201.76688 1874
-169.59518 222.2113 1871
-153.5536 252.2258 1878
-149.06641 255.84872 1874
-141.04654 268.90189 1878
-132.42584 272.48929 1874
-193.46786 206.69623 1881
-187.60245 205.0435 1885
-175.11066 223.9532 1885.6666
-174.67729 231.75032 1881
-157.97456 244.27736 1881
-147.69002 265.44214 1883
-141.79759 274.52496 1888
-137.09616 273.50714 1881
-128.7448 273.50714 1881
-185.8054 291.28986 1888
-184.39091 208.23465 1895
-194.13664 213.77187 1894.3334
-188.64743 214.60527 1895.5
-183.12135 223.81482 1896.3334
-175.69881 222.60533 1892
-180.18416 233.4752 1895
-165.32785 245.9007 1893.5
-157.21494 254.77318 1897
-218.50525 263.47751 1899
-152.88443 265.09195 1895.5
-151.05502 271.90878 1899
-146.53008 275.54282 1895
-133.6978 279.3067 1892
-127.39764 279.3067 1892
-184.48601 287.26346 1896
-136.30028 282.44788 1899
-180.18416 296.57663 1895
-177.93814 292.13843 1893.5
-180.37433 303.20865 1897
-176.34885 303.52609 1899
-197.84291 217.56277 1903
-183.95357 216.38324 1905
-176.9989 217.90575 1906
-195.23225 223.43079 1905
-186.67482 224.72241 1904
-216.43079 253.89365 1903
-157.70996 253.47119 1903
-255.27573 268.6799 1906
-244.69778 268.6799 1906
-236.23541 268.6799 1906
-223.19003 264.0325 1903
-202.38597 262.33313 1906
-160.07417 260.21753 1906
-155.843 268.6799 1906
-253.16014 272.91107 1906
-243.63998 273.96887 1906
-236.23541 272.91107 1906
-151.3732 276.70605 1903
-189.39388 285.15509 1903
-176.72031 289.37961 1903
-151.61183 281.37344 1906
-144.40742 282.48862 1904
-134.58444 285.37988 1904.5
-126.22475 285.60464 1906
-176.72031 297.82864 1903
-232.00423 310.9917 1906
-227.77306 315.2229 1906
-219.3107 315.2229 1906
-223.19003 378.09454 1903
-214.85161 378.29321 1904
-215.07953 382.92175 1906
-202.81071 218.36305 1910
-181.89568 210.2126 1913
-203.554 223.41893 1917
-198.57066 226.84319 1910
-194.76689 232.66132 1914.25
-185.99643 233.38808 1911.5
-220.5764 248.95253 1917
-207.8096 248.95253 1917
-232.85629 256.92648 1913
-226.39825 254.70242 1912.25
-173.76482 253.20813 1917
-166.26466 254.01025 1912.3334
-263.43744 266.27017 1911.5
-256.34607 263.43311 1914
-244.61826 265.27808 1912
-234.53105 264.53799 1912.8
-227.45827 264.25421 1912.25
-271.64359 270.23053 1917
-263.13239 274.48611 1917
-257.14316 276.98911 1914.6666
-247.33133 277.72388 1910
-234.79373 275.8186 1911.5
-156.41536 278.1601 1913
-237.10301 284.53021 1913
-190.09055 281.96396 1910
-154.45554 284.82544 1915
-147.68994 286.20401 1910
-173.22095 294.84061 1911
-167.20679 293.32776 1915
-152.48682 291.50851 1917
-133.19974 291.20438 1915
-126.68832 290.90024 1913
-241.60208 306.08124 1915
-236.31799 305.05756 1915.25
-173.26627 305.5257 1911.5
-168.26845 302.89175 1915
-226.13104 311.64435 1910
-219.77095 311.64435 1910
-181.75305 314.01245 1911.5
-177.69537 314.34323 1913.5
-126.68832 316.38058 1913
-258.8768 329.8089 1917
-175.18335 326.97183 1917
-169.5092 325.55331 1917
-131.20882 323.42551 1917
-126.68832 326.99738 1913
-233.34319 374.49268 1917
-228.43033 377.65997 1911.5
-233.34319 385.13168 1917
-226.3103 386.14841 1911.5
-215.59726 386.3913 1910.6
-206.24652 382.02969 1915.6666
-224.18695 394.63684 1911.5
-216.60149 394.31354 1912
-182.65634 215.35616 1921
-206.49039 226.42528 1924.5
-202.16171 234.91261 1924
-214.1873 248.34834 1923.3334
-204.49574 244.60497 1925.8572
-257.95215 258.67245 1926
-244.50063 257.33533 1926.6666
-238.09456 258.00095 1921
-200.23407 254.39246 1926
-196.16197 258.94107 1928
-176.9019 256.80109 1928
-169.8629 258.00095 1921
-250.88799 262.26541 1921
-246.6235 262.26541 1921
-200.02615 262.67499 1924
-170.12817 262.67499 1924
-165.59843 262.26541 1921
-268.92227 276.06116 1928
-233.83008 279.32333 1921
-212.50769 270.7944 1921
-206.4826 271.28778 1924.5
-161.33394 279.32333 1921
-232.54214 282.4812 1928
-226.12212 280.34119 1928
-187.60194 280.34119 1928
-162.83942 286.58066 1922
-157.06947 287.85229 1921
-155.50182 295.32123 1928
-143.67673 294.34579 1924.4
-133.96483 297.15268 1926
-127.4168 296.84412 1924
-232.80916 302.5889 1924.3334
-226.45895 307.88293 1923.6
-165.59843 304.91022 1921
-127.6817 301.74127 1928
-118.87452 301.11526 1924
-217.1107 313.92865 1924
-187.60194 318.86136 1928
-174.12738 315.57141 1921
-169.8629 315.57141 1921
-133.22868 317.0488 1925.6666
-126.16673 314.36377 1926.6666
-275.05447 327.08173 1926
-267.94592 326.2326 1921
-259.82208 326.74207 1924
-166.20186 327.42136 1928
-140.52174 323.14136 1928
-136.1004 324.94614 1926
-123.40167 323.14136 1928
-265.19754 334.25958 1924.25
-256.70679 333.51431 1922
-183.32193 335.98141 1928
-175.14343 335.93076 1922.8
-168.03238 335.37149 1924.5
-131.72215 333.23926 1924.5
-174.67348 344.36273 1927
-166.20186 342.40143 1928
-251.2798 369.45346 1924
-251.2798 373.72458 1924
-244.93285 371.6817 1924.5
-236.57426 374.10864 1926
-202.21036 375.95395 1924.5
-238.71426 384.7998 1926
-203.97873 385.9353 1921
-209.43565 229.45602 1932
-216.2562 236.31671 1935.5
-208.11443 236.7274 1933
-213.72455 242.32271 1932
-252.32462 259.4783 1932
-248.9344 256.11401 1939
-192.28006 255.18942 1932
-179.69196 259.88123 1935
-200.85786 268.05612 1932
-194.92546 262.29761 1937
-173.60675 266.87509 1939
-276.91327 277.6362 1939
-215.869 276.63388 1932
-192.97673 277.6362 1939
-188.67229 277.6362 1939
-171.10085 272.76791 1935
-235.16904 289.50061 1932
-192.28006 280.92279 1932
-235.35162 296.16205 1933.5
-162.38374 296.16534 1933.5
-157.96887 298.0784 1932
-149.39108 298.0784 1932
-123.65769 298.0784 1932
-224.11774 304.3186 1935.3334
-218.35199 307.13239 1935
-141.32349 303.46283 1939
-133.83 304.16208 1934.3334
-125.23667 305.59692 1934.3334
-119.3688 306.65619 1932
-287.0809 311.42792 1935
-273.76913 319.52289 1932
-265.19131 319.52289 1932
-218.01346 310.94507 1932
-209.43565 319.52289 1932
-166.54668 315.23398 1932
-142.84119 315.05527 1936.2
-135.25964 312.75024 1934.3334
-123.97772 313.89758 1937
-119.58505 313.65283 1935.5
-282.34689 325.95624 1932
-256.81274 326.20764 1933.5
-248.42087 320.01904 1935
-205.51839 322.24615 1935.5
-197.28116 329.28943 1939
-164.69617 326.5506 1935.5
-144.34917 325.59631 1936.25
-276.37964 335.09872 1935.25
-269.48022 336.67847 1932
-205.89003 333.59387 1939
-188.28307 337.20126 1935
-163.96735 334.39493 1935.3334
-156.99741 334.79636 1937.6666
-144.47893 334.49792 1938
-136.6304 334.79541 1933.5
-276.62985 341.84976 1937
-269.48022 340.96735 1932
-192.28006 349.54517 1932
-184.03506 343.73727 1935.5
-175.26376 347.66876 1933.5
-162.38374 343.37985 1933.5
-158.3777 344.00201 1937
-192.57863 356.53128 1935
-182.93304 355.11609 1939
-174.42984 355.02283 1933.8
-166.92023 354.63065 1936.3334
-194.57712 364.841 1933.5
-184.17325 363.34979 1937
-173.42992 363.34979 1937
-167.1501 363.72495 1939
-257.54327 376.63824 1939
-248.03572 370.98965 1932
-195.57503 373.25357 1936.3334
-201.58562 385.2471 1939
-209.43565 392.43414 1932
-226.9431 405.93018 1935
-215.3839 226.91531 1947
-217.09807 230.76245 1943
-256.44476 257.17072 1947
-187.09946 261.22427 1945
-286.40341 276.33865 1945
-202.41731 274.4595 1947
-197.68814 278.20892 1943
-176.30284 276.33423 1945
-217.545 283.10388 1947
-288.86124 291.74829 1947
-232.19467 299.77551 1943
-293.18344 309.03708 1947
-288.26779 308.40216 1943
-228.35049 300.39267 1947
-163.51753 304.71487 1947
-153.32635 305.94693 1945.6666
-144.59071 307.17603 1944.3334
-137.30171 308.40216 1943
-292.58112 312.71545 1943
-212.35493 314.58539 1945.6666
-206.7395 317.68146 1947
-151.99168 314.79999 1947
-283.95447 321.3421 1943
-262.92807 322.00366 1947
-206.31477 329.96875 1943
-163.18159 325.6554 1943
-153.41478 325.8457 1944.1428
-202.41731 337.13135 1947
-154.76709 336.17862 1945.6666
-146.22876 339.29245 1947
-189.2561 345.42276 1945
-154.55498 342.90869 1943
-186.31274 354.65512 1944.3334
-163.18159 351.53534 1943
-193.37483 368.7886 1943
-186.18596 361.59973 1943
-193.77292 378.1922 1947
-189.06151 373.10193 1943
-249.96146 382.5144 1947
-245.13463 390.35516 1943
-206.7395 395.48099 1947
-223.56804 407.60843 1943
-264.14346 256.18616 1956
-257.10553 253.49783 1952
-192.29626 266.77075 1954
-181.82782 267.31686 1958
-198.40034 270.55353 1950
-183.24934 279.21121 1950
-177.48122 271.66348 1958
-290.49323 280.35672 1958
-286.81015 286.81375 1952.6666
-233.50922 288.45944 1954
-292.66653 295.56989 1958
-284.97748 292.19781 1950
-233.98723 297.74316 1958
-211.82054 292.79721 1954
-286.14661 306.43643 1958
-221.7885 302.7099 1952.6666
-213.40802 306.01315 1955.3334
-155.11179 307.34882 1950
-303.53308 319.47626 1958
-298.57526 312.31256 1954
-202.7292 318.17093 1950
-162.18408 316.05316 1957
-157.43974 314.15955 1952
-257.10553 322.83057 1952
-203.56091 323.82288 1958
-163.76949 322.49982 1950
-159.44064 322.49982 1950
-284.97748 335.48636 1950
-202.7292 331.1575 1950
-153.10201 346.66147 1952
-144.88159 345.55594 1958
-135.77325 344.49704 1952
-163.76949 357.13065 1950
-157.59439 353.52548 1954
-163.76949 363.62393 1950
-190.13185 379.55191 1954
-184.99907 372.76514 1954.8
-175.67567 372.32532 1954
-168.44318 370.87643 1954
-197.35844 385.33557 1954
-212.25415 402.06195 1958
-269.51508 257.17236 1963.5
-186.84004 268.27255 1965
-295.89392 276.99686 1965
-195.66388 276.04507 1966
-182.19928 276.57397 1962
-291.08667 285.28494 1962
-230.10974 289.64044 1962
-217.04324 289.64044 1962
-305.23831 299.41589 1969
-295.66803 294.21741 1963.5
-285.05716 298.88367 1965.5
-234.46524 293.99597 1962
-226.55969 290.67383 1969
-292.83743 305.92142 1964
-286.73117 302.70694 1962
-217.20918 305.11612 1963.5
-313.98041 312.52902 1969
-306.44885 313.7164 1962.75
-164.7773 315.77341 1962
-313.34256 320.61841 1965
-308.50867 320.12891 1962
-160.6671 359.87781 1965
-151.94279 351.1535 1965
-160.99416 364.98141 1969
-193.23398 387.93381 1963.5
-184.70206 381.78571 1965.5
-204.70451 399.94971 1969
-195.60632 392.69 1965.5
-304.28412 278.68845 1977
-192.36983 274.29965 1977
-185.59647 276.21213 1975
-310.5528 284.98083 1975
-306.47849 287.46603 1977
-297.09857 284.69446 1973
-310.23831 293.45428 1973
-303.66846 293.45428 1973
-223.0914 291.85483 1977
-310.23831 304.40405 1973
-302.93848 305.86404 1973
-297.09857 304.40405 1973
-231.39986 300.02414 1973
-314.61826 317.54379 1973
-148.4819 353.29794 1977
-157.25949 362.07556 1977
-170.08105 378.86264 1973
-187.98105 388.40829 1977
-179.20346 384.0195 1977
-196.75864 397.18588 1977
-201.14743 401.57468 1977
-265.86084 253.37683 1985
-311.49625 279.25232 1981
-299.5079 275.9646 1989
-189.12206 275.9646 1989
-316.53177 288.62927 1985
-304.16681 285.11588 1981
-316.5318 295.23468 1985
-232.80727 297.44238 1985
-321.58505 302.45718 1989
-314.85327 304.58389 1983.6666
-304.89975 305.63834 1981
-281.27936 301.84894 1985
-227.94044 301.24066 1981
-323.46942 317.58932 1987
-316.53177 310.66205 1985
-153.17999 358.41043 1981
-144.67618 354.72757 1985
-157.89584 367.94724 1985
-164.50568 374.55707 1985
-186.534 392.17883 1985
-210.77448 407.60623 1985
-222.23781 415.05075 1989
-273.56433 254.39799 1993
-322.23178 289.79251 1993
-318.44531 285.94092 1997
-322.87851 297.02393 1997
-225.04736 298.84094 1994.3334
-222.90598 303.36957 1995
-216.04828 303.06543 1993
-322.23178 311.91409 1993
-140.83495 356.1572 1993
-136.41063 356.1572 1993
-154.41718 365.73843 1997
-149.98399 361.30524 1997
-183.04721 394.1568 1995
-207.19965 409.24896 1993
-196.33347 403.01428 1995
-203.1823 410.07034 1997
-265.64548 250.85165 2000
-310.66409 278.04578 2004
-324.65698 287.51596 2008
-319.56155 282.49451 2004
-328.45901 293.62079 2004
-326.97906 304.73227 2004
-327.80341 321.88931 2000
-150.81015 367.75302 2008
-146.06099 362.57169 2004
-135.07605 362.93353 2006
-157.02374 373.31836 2002
-166.2438 382.97058 2006
-181.65085 398.16156 2004
-190.16798 401.80664 2000
-274.21362 252.60762 2014
-327.86035 286.13739 2014
-334.23672 292.55521 2012
-330.42584 311.03833 2016
-144.41083 366.25232 2012
-135.74718 369.21817 2016
-153.64867 375.93121 2016
-275.98358 247.48627 2027
-335.5657 298.2027 2020
-335.5657 304.92908 2020
-337.06079 313.04401 2029
-142.7429 369.95074 2020
-152.08693 379.85715 2025
-145.94438 376.48581 2023
-138.73776 377.98019 2027
-162.92203 385.64563 2020
-156.89157 385.11172 2029
-145.63098 385.11172 2029
-342.46286 304.83179 2034.3334
-152.98817 386.63016 2037
-146.05942 386.25055 2035
-155.09451 390.7681 2035
