# .PCD v0.7 - Point Cloud Data file format
VERSION 0.7
FIELDS x y z
SIZE 4 4 4
TYPE F F F
COUNT 1 1 1
WIDTH 873
HEIGHT 1
VIEWPOINT 0 0 0 1 0 0 0
POINTS 873
DATA ascii
317.81488 296.80469 1831.5
324.22501 297.08636 1833.25
318.76926 303.81137 1837
323.64832 302.65366 1830
332.68195 303.48059 1835
425.05975 231.66151 1847
323.37451 292.05353 1840
314.06909 303.16647 1841.3334
328.17105 309.06256 1844
335.10675 305.78955 1842.75
423.23871 187.56935 1857
434.43079 187.06432 1852
474.00177 183.15057 1854
421.17749 191.69174 1857
427.28256 227.00856 1853.6666
377.58536 236.84671 1855.5
416.66196 233.88298 1851.6
426.21265 236.39995 1852
433.54471 232.91577 1857
377.58536 240.96579 1855.5
417.9856 240.51126 1852
425.38882 243.21579 1853.8
329.23886 293.64078 1850
334.06647 298.39139 1854
337.45258 301.85449 1850
344.63275 304.80975 1855.5
325.13199 310.06821 1850
333.34573 314.17508 1850
344.26685 310.65482 1853.5
369.56573 159.5672 1867
361.27652 176.1456 1867
361.27652 180.29021 1867
424.83411 184.13844 1864
434.87064 185.3831 1862.6666
445.4082 188.22589 1863.5
460.74698 188.57942 1867
477.32541 188.57942 1867
438.84552 194.27686 1862
442.97906 194.27686 1862
438.37418 200.25955 1860
445.4082 200.63638 1863.5
416.10907 229.40942 1862
423.53665 226.57161 1861.3334
436.54532 227.22168 1861
442.09625 223.80853 1867
375.48236 236.05087 1865.5
383.59579 234.83563 1861.3334
390.28873 234.17003 1867
411.97556 235.60742 1862
437.62332 236.38515 1862.6666
444.16858 232.09773 1867
374.61963 244.91412 1864.6666
383.35571 244.06924 1863.5
416.44263 244.06924 1863.5
433.72482 246.15839 1863.6666
440.02396 246.60385 1867
381.99954 250.74844 1867
425.17432 250.54698 1865.5
435.87936 250.74844 1867
328.11969 292.19449 1867
336.40891 296.33908 1867
340.5535 300.48367 1867
323.4545 312.41467 1864
335.14758 315.87332 1860
345.84393 316.21295 1862
336.40891 321.2067 1867
403.60074 344.26025 1864.6666
507.99976 343.72729 1865.5
373.03143 162.24554 1874
380.08118 160.50734 1878
366.20404 176.52298 1871
373.82764 177.18341 1878
365.66251 185.26099 1875.3334
375.91214 181.35245 1878
421.77139 189.69049 1878
432.65976 184.82996 1871
444.22519 183.23938 1876
455.50391 188.98344 1871
464.18271 184.97813 1872.5
475.46176 187.4084 1876
357.15155 198.02853 1878
363.40509 198.02853 1878
420.19928 193.13692 1871
449.27365 195.21365 1871
455.86908 195.37183 1872.5
464.61847 195.55469 1874.25
478.34805 193.13692 1871
354.59326 204.01288 1875.5
364.76172 203.87387 1874.25
436.8132 201.44388 1871
445.51523 207.85724 1872.6666
456.19009 204.83333 1876.6666
355.39911 215.11032 1877
365.22864 214.55365 1876.6666
388.41919 218.87364 1878
407.17981 218.87364 1878
425.63504 218.71825 1876.6666
432.88879 216.09428 1878
444.22968 216.55826 1876
454.15417 210.08717 1874
356.76898 222.80513 1876
365.66544 224.11565 1875.3334
375.6423 227.05037 1876.6666
384.88965 225.38135 1874.3334
417.60239 227.21169 1878
423.65292 223.42783 1872.5
434.73648 222.2113 1871
445.12018 222.2113 1871
450.95453 227.21169 1878
355.06705 235.54971 1878
373.92133 234.95395 1873.25
385.20493 230.70306 1872.5
395.07651 234.95921 1873.3334
405.83377 235.17493 1875
412.22253 234.86322 1872.5
448.36938 234.92036 1873
455.12357 235.54971 1878
370.95135 245.44838 1874
417.60239 248.05679 1878
444.52872 244.80127 1874.3334
424.69629 253.5672 1872.5
435.08667 255.64394 1872.5
443.142 254.50972 1874.3334
445.78638 264.96985 1876
344.27521 297.76761 1876
312.20874 309.43442 1871
347.79028 303.44562 1872.5
325.2688 316.25125 1874.5
334.22192 323.09918 1878
342.55997 323.09918 1878
512.39618 339.05157 1874
400.07236 347.37186 1874
404.59201 351.84464 1875.6666
407.25235 157.17078 1888
377.31329 169.47472 1885
384.04886 165.48746 1887.25
390.48746 161.36201 1888
368.16129 173.29079 1881
375.22101 173.65929 1885
381.39667 175.70107 1884.5
373.72885 184.42595 1881
382.82748 183.39107 1884.6666
422.44513 185.81783 1881
448.45087 182.02841 1885
454.72769 186.21297 1885
460.02628 185.81783 1881
472.55331 187.90567 1881
358.10022 194.37564 1883
367.50882 194.37341 1883
375.12198 194.74416 1886.6
381.80145 194.73361 1886.5
419.15894 194.58209 1885
423.34348 198.76666 1885
475.33591 196.54701 1883.75
482.69434 199.08299 1888
374.19592 204.16368 1883.3334
383.50211 206.06836 1888
424.01724 203.27422 1888
440.7821 207.46544 1888
465.03711 204.19083 1881
474.31189 205.36983 1888
372.86484 215.35541 1883.6666
384.80328 217.15408 1884.8
396.25 217.65213 1885.5
403.87924 214.55054 1884
415.76547 217.15408 1884.8
425.32294 213.35213 1884.5
439.14786 215.04759 1881
454.24744 215.27625 1883
462.6077 211.09612 1883
470.12067 211.65665 1888
354.59033 226.53072 1881
363.9856 227.57463 1881
375.85471 222.43736 1884.6666
384.86401 223.39896 1881
396.09323 225.93439 1884.75
405.07806 226.00114 1881.8
414.75421 224.79918 1884
454.19254 223.9532 1885.6666
345.83344 236.36497 1884.5
355.63425 233.42058 1881
366.26694 233.96358 1882
374.4248 231.75032 1881
401.56674 231.75032 1881
455.85059 231.75032 1881
460.02628 233.83815 1881
486.88556 236.80397 1888
499.4592 236.80397 1888
505.74606 236.80397 1888
512.03284 236.80397 1888
339.65228 240.61226 1885
346.99356 242.26463 1887
354.58017 242.89935 1886.5
365.20596 244.22424 1884.625
389.03967 248.45305 1881
396.46075 244.99164 1886.5
405.7424 240.10167 1881
411.44357 245.18643 1888
454.0704 245.50699 1884
461.98953 244.7627 1884.75
475.35968 244.13861 1888
484.40314 240.80373 1886.5
495.26797 240.99519 1888
512.03284 240.99519 1888
528.79779 249.37766 1888
534.09656 248.91534 1884.5
366.75073 253.09879 1884.5
385.81363 256.04962 1885.6666
392.58307 255.66446 1888
419.82602 253.56885 1888
424.53296 256.80441 1881
447.49924 252.62871 1881
454.5127 256.22647 1887
461.73822 255.66446 1888
428.20847 261.95132 1888
435.27756 261.16507 1882.3334
440.08173 267.81189 1885
455.53369 264.53473 1884
461.3714 263.83881 1886.5
436.59091 270.33374 1888
446.2363 276.10779 1884.5
452.15515 275.89023 1883
516.22412 282.90741 1888
523.20947 284.30447 1888
337.20404 294.69855 1883
348.57526 295.48108 1888
519.58838 295.01157 1885
520.41534 291.28986 1888
351.45856 302.73691 1881
318.72946 315.93436 1885
326.40445 319.43964 1881
356.01239 313.5069 1883
331.81036 324.81961 1888
347.28287 323.61533 1881
353.54074 324.24393 1884.6666
352.76648 335.29767 1888
398.23611 349.41086 1885
415.6348 349.96695 1888
457.18347 345.49768 1886.5
512.03284 345.77573 1888
406.60522 357.77997 1885
411.44357 358.3494 1888
402.55447 157.79514 1895.5
395.51486 163.80392 1892
405.01132 164.32918 1893.2
387.31931 174.39409 1893
393.95245 173.88481 1896.6
403.71964 172.01875 1897.6666
387.11469 186.90448 1892
394.45673 185.29282 1897
378.71448 195.30467 1892
386.57617 195.56108 1894.5
393.61325 197.15129 1896.3334
414.74222 195.4595 1893.5
421.82733 195.81638 1897
488.69073 195.61435 1895
378.71448 207.90498 1892
387.11469 203.70488 1892
393.88348 206.04884 1894.25
404.25732 205.38046 1896.4286
414.67676 205.40256 1898
422.85672 206.86604 1895.3334
479.51688 207.90498 1892
483.76352 205.72021 1897.6666
379.01471 214.37329 1893.5
385.01465 212.10507 1892
393.41479 212.10507 1892
400.34879 212.44139 1895
414.41534 212.10507 1892
420.71548 212.10507 1892
465.18671 216.47668 1893.5
473.9671 214.54477 1895
481.29099 212.88982 1899
519.23175 217.10547 1899
458.51639 222.60533 1892
465.03687 225.01595 1894.6
473.66461 224.36629 1898
498.15356 229.75238 1899
505.78235 228.33774 1896
514.47144 227.4026 1897
525.55518 229.75238 1899
531.87872 229.75238 1899
466.9166 235.20563 1892
474.92764 235.85007 1893.8
484.29224 234.43283 1894.25
494.86917 235.51364 1894.5
505.33481 233.39307 1894.3334
516.19122 234.62883 1893
524.72382 235.70178 1896
533.14398 235.70399 1896
345.66089 246.09549 1895
407.09033 246.35522 1897
458.51639 241.50578 1892
466.9166 245.70589 1892
473.9671 241.88872 1895
485.81705 245.70589 1892
496.04578 246.61494 1899
505.879 244.18169 1893.2
515.42285 245.80328 1892.75
524.75592 245.20218 1894.6
532.64996 243.89636 1894.25
349.86765 250.30225 1895
355.21295 253.04118 1896.6
363.69888 254.37469 1894
370.31427 258.30618 1892
396.97821 255.04623 1899
401.19385 255.04622 1899
458.51639 254.10608 1892
466.9166 256.20612 1892
474.14581 253.99178 1897.4
485.79358 251.48824 1896
496.04578 250.8306 1899
504.73065 251.48824 1896
515.42352 254.8331 1897.4
525.00391 252.67422 1897
534.39825 254.24037 1893
544.52563 255.04622 1899
379.31497 262.92252 1895
386.03433 263.20001 1897
424.91559 262.50629 1892
436.21744 267.19977 1895.5
467.28677 264.81781 1893.5
472.85971 263.47751 1899
515.01611 263.47751 1899
548.74121 267.69315 1899
442.41638 275.54282 1895
458.51639 277.20667 1892
464.93692 272.78604 1895.3334
515.98981 275.5134 1894.8334
523.44739 276.12442 1899
531.87872 276.12442 1899
446.16064 284.55569 1899
452.81491 285.987 1894.5
462.32062 282.44788 1899
514.06305 285.08127 1895.5
529.91809 285.60684 1892
534.11816 283.50681 1892
332.51337 291.90698 1892
345.11365 296.10709 1892
447.56589 292.987 1899
453.41354 292.67841 1897
358.28119 309.1969 1895
400.34879 309.1969 1895
523.44739 301.41827 1899
316.88104 318.28082 1899
362.48792 317.61041 1895
400.34879 317.61041 1895
327.07751 324.26465 1897
345.11368 329.70792 1892
358.28119 326.02393 1895
363.25308 322.49646 1899
337.24738 330.23071 1895
345.99615 335.96872 1896.8572
359.03745 335.1434 1899
362.87048 336.8938 1897
460.2128 339.35904 1899
514.47369 336.8938 1897
356.55594 343.21283 1897
362.48792 342.85098 1895
447.56589 345.6825 1899
453.90585 345.15524 1893.8
464.42844 347.79031 1899
513.93127 342.85098 1895
399.715 354.90851 1892
403.9151 359.10861 1892
417.17581 355.47125 1895
454.24155 353.82739 1895.2
463.57245 353.465 1895.5
509.32108 353.08984 1893.5
405.40948 362.54504 1899
396.40622 157.01132 1903
404.15118 154.19498 1903
412.60022 156.30724 1903
415.36624 162.90042 1906
397.81439 179.54208 1903
403.65836 178.22826 1904
414.26117 175.48473 1904.8
404.15118 185.87886 1903
419.59741 186.17191 1906
423.16153 187.99112 1903
461.18219 183.76662 1903
395.70212 194.32791 1903
404.30963 194.40367 1903.75
417.15161 192.36716 1904.5
418.93698 202.77695 1903
524.36536 207.68498 1905.4
535.53473 209.27856 1904.5
478.08026 217.56277 1903
484.41702 215.4505 1903
499.20288 217.56277 1903
508.05206 215.61867 1904.5
514.3938 215.61867 1904.5
524.75671 215.53459 1903.75
535.53473 217.73425 1904.5
469.63123 226.01181 1903
478.83392 226.36812 1906
482.68494 224.0777 1904.5
497.79471 224.60364 1903
505.53964 223.89955 1903
513.98865 221.78729 1903
523.909 225.13383 1904.5
478.83392 230.59929 1906
484.41702 230.23633 1903
492.86609 230.23633 1903
538.07043 230.59929 1906
345.00787 253.47119 1903
364.01822 259.80795 1903
404.47141 253.67264 1904.5
478.08026 259.80795 1903
483.71292 256.99161 1903
497.87427 255.98636 1906
505.53964 257.69568 1903
511.87643 259.80795 1903
522.43774 257.69568 1903
537.22351 259.80795 1903
546.72876 256.63956 1903
550.76398 251.75519 1906
347.66736 260.21753 1906
354.01413 260.21753 1906
364.5921 262.33313 1906
372.46729 264.0325 1903
381.51678 268.6799 1906
393.58984 264.0325 1903
432.29095 268.6799 1906
476.71832 266.56433 1906
483.06509 264.44873 1906
499.98984 264.44873 1906
506.28223 265.04388 1904.2
513.55353 266.98978 1904
520.7356 266.3562 1904.5
533.83929 260.21753 1906
549.89709 264.0325 1903
440.0596 276.70605 1903
469.63123 276.70605 1903
511.87643 274.59378 1903
526.66223 272.48151 1903
535.81537 273.88968 1903
545.04492 273.75409 1904.5
406.26343 285.15509 1903
444.9845 285.60464 1906
466.93716 286.63931 1903.5
474.60275 285.60461 1906
511.87643 285.15509 1903
532.99902 280.93057 1903
338.67111 293.60413 1903
345.28149 293.83557 1904.5
351.89853 294.06699 1906
411.13504 294.06699 1906
448.50864 297.82864 1903
461.90921 294.06699 1906
472.48718 298.29816 1906
516.10089 297.82864 1903
359.79373 306.27768 1903
364.59207 306.76053 1906
521.14575 302.52936 1906
364.30515 312.85922 1904.5
321.77304 323.17575 1903
366.70767 325.80084 1906
337.08942 334.26318 1906
364.59207 332.14761 1906
516.10089 331.62482 1903
347.66736 344.84116 1906
353.73718 346.68536 1904.5
364.59207 349.07233 1906
436.52216 346.95673 1906
446.15921 344.66245 1905
454.8454 340.07385 1903
465.40671 340.07385 1903
474.60275 344.84116 1906
508.45221 344.84116 1906
512.14545 344.47705 1904
396.82211 354.52853 1905
425.27377 352.74741 1903
432.29095 353.3035 1906
446.74658 353.02545 1904.5
474.22925 355.14105 1904.5
508.45221 355.41907 1906
404.46808 365.70901 1904.5
416.82471 363.30872 1903
409.25223 146.81816 1917
399.90485 150.75853 1913
405.63782 150.52211 1910
414.44479 152.76367 1911.5
416.23795 167.48235 1910
422.01901 168.09615 1917
416.23795 175.96246 1910
420.478 173.84244 1910
414.82458 187.26929 1910
493.33264 201.71916 1913
517.99933 209.88293 1910
524.77295 201.56099 1911.5
533.2597 205.80437 1911.5
542.30774 208.13974 1913.5
495.09207 211.77765 1914.3334
501.82611 210.2126 1913
534.95959 214.12299 1910
546.20331 216.49692 1912.25
551.9198 218.36305 1910
505.27917 222.60312 1910
526.47949 222.60312 1910
533.8241 224.13301 1911
540.61121 225.3092 1915
544.29333 235.69292 1913
553.94257 236.18575 1917
543.43976 245.92343 1910
407.75784 252.28354 1910
414.13025 254.13939 1913.3334
558.19818 257.46371 1917
344.92496 263.47168 1914.25
355.31427 265.41995 1913
364.13516 266.55804 1911
370.1778 269.66666 1913
386.55753 269.24377 1910
391.41141 269.66666 1913
404.15155 265.41995 1913
479.83884 269.24377 1910
488.31897 265.00372 1910
526.47949 265.00369 1910
534.47296 266.27554 1910.4286
546.32782 266.01953 1911.2
347.54602 274.48611 1917
356.05725 270.23053 1917
362.44064 270.23053 1917
378.67126 273.91336 1913
385.64627 276.47073 1916
392.22983 274.48611 1917
405.42407 275.2261 1912.3334
475.59875 275.60385 1910
482.68094 274.2952 1915.6666
495.78271 274.48611 1917
506.02356 276.01324 1912.8334
345.41824 282.99731 1917
383.3183 284.82544 1915
475.59875 286.20401 1910
481.09497 284.8299 1915
506.6019 284.8299 1915
510.31955 284.53021 1913
539.19965 281.96396 1910
336.20404 290.90024 1913
344.9407 291.103 1914.3334
355.40326 293.09631 1913.5
392.22983 291.50851 1917
417.32758 297.57892 1915
465.70532 297.51083 1910
473.47876 294.68411 1910
480.5925 299.39371 1913
513.75928 290.44406 1910
374.42453 307.88712 1913
467.11865 303.16425 1910
475.59879 304.86026 1910
485.85297 306.40314 1917
517.4848 303.69037 1913.3334
522.23944 307.4043 1910
373.75653 313.52185 1915
447.55261 317.04211 1917
453.93604 317.04211 1917
318.71658 324.36453 1910
327.71063 329.12073 1913
369.59729 324.3645 1910
377.33524 323.42551 1917
504.47632 323.0903 1915
515.10205 326.27533 1915
524.15338 329.8089 1917
333.60428 336.43393 1914.3334
439.04141 334.06451 1917
447.55261 334.06451 1917
453.04611 335.53271 1913.25
464.25186 338.08481 1915.6666
505.00317 338.3201 1917
512.03943 335.22775 1911.5
342.57416 343.98425 1913
352.63705 349.8049 1910
438.12534 341.86087 1913
442.73834 344.50482 1910
475.59875 349.8049 1910
507.23517 345.47357 1914.2
348.94421 350.35434 1913
365.49902 355.24231 1910.75
370.95184 355.3425 1917
392.89294 357.49472 1913.3334
427.17499 358.56638 1911.5
436.11203 356.82153 1913.5
443.86472 357.49692 1913.3334
450.15842 358.285 1910
475.96896 356.44635 1911.5
484.09653 357.93237 1915.6666
493.84399 359.2229 1915
503.94418 357.92944 1915.6666
395.72189 363.15775 1913.3334
400.74103 368.10931 1917
425.96899 365.41342 1911.8
455.18631 363.15775 1913.3334
462.8786 362.52509 1910
498.61981 363.8537 1917
510.31955 363.09448 1913
404.99664 372.3649 1917
416.23795 371.00519 1910
424.14682 372.3649 1917
405.84171 147.12451 1921
495.39572 206.82721 1921
508.18915 211.09169 1921
547.4231 226.37033 1924
555.69452 227.55431 1928
547.4231 232.77704 1924
550.83398 236.67856 1921
546.56952 240.94302 1921
551.2641 247.53122 1922.5
336.34875 267.22363 1926
341.87451 266.52991 1921
338.13727 279.75955 1924
343.20761 274.20587 1922.5
354.66794 278.25723 1921
380.25482 279.32333 1921
393.04825 279.32333 1921
487.62708 275.4884 1924
494.48779 276.76892 1923
338.84027 284.62119 1928
344.27371 285.9415 1922.5
354.25684 286.50482 1923.4
487.965 284.22458 1925.3334
495.12695 284.96402 1925.5
503.02563 286.7305 1923
334.56024 293.18121 1928
358.93243 292.11676 1921
486.29007 295.47183 1924.3334
495.06091 293.18121 1928
505.23187 292.87708 1926
512.85382 294.48044 1922.5
487.62708 301.11526 1924
494.09998 307.56 1924.25
517.52509 307.52197 1924
375.99036 317.70364 1921
384.82123 316.88559 1922.5
440.64459 318.1998 1924
463.77567 317.95172 1922.5
472.67816 318.1998 1924
487.24692 315.81949 1922.5
491.13126 315.57141 1921
505.40823 314.36081 1926.6666
512.18103 316.72134 1928
317.1109 324.94614 1926
386.80331 324.22772 1921.75
447.10745 324.65063 1924.25
455.83148 324.77631 1925
465.10077 323.14136 1928
472.67816 322.47092 1924
487.62708 322.47092 1924
495.05551 324.01355 1923
500.44055 326.74207 1924
512.45367 326.2326 1921
326.08948 335.34207 1924.3334
437.64371 335.16299 1923.3334
445.27853 334.31107 1922.5
454.88318 330.49707 1921
463.50406 333.91577 1924.3334
472.89645 336.3573 1922
493.65961 334.465 1924.2
505.09106 332.41064 1922.2
512.45367 330.49707 1921
325.77182 342.8765 1926.6666
335.47778 343.29053 1921
342.40842 348.09778 1924
501.83182 344.04779 1925.25
346.67957 352.36893 1924
363.19693 356.08395 1921
376.57751 356.64005 1924
381.64044 355.24152 1928
394.06683 354.87521 1926
482.60229 351.81949 1921
495.65359 356.26932 1922
505.44598 353.20612 1922.75
374.44196 363.04675 1924
395.18048 368.87741 1921
437.1145 364.61292 1921
444.06146 366.89081 1924
455.23672 369.16544 1922.5
465.5444 367.4559 1921
477.41211 366.41626 1923
486.50085 365.94153 1928
494.82864 363.8241 1924.3334
506.45374 364.89764 1922.5
403.04053 374.50156 1928
434.35461 373.82172 1924.5
450.12073 370.22156 1928
476.18213 374.24109 1926.6666
501.48099 370.22156 1928
553.98816 225.16713 1932
556.56604 233.92639 1933.5
553.98816 242.32271 1932
558.27704 250.90051 1932
338.00613 274.98672 1935.5
335.86169 283.58392 1935.5
341.95132 289.72537 1933.5
494.71057 298.54123 1935
505.90308 296.95731 1934
511.09915 298.0784 1932
496.08801 302.36728 1932
505.32001 304.90302 1934.5
513.90662 304.90466 1934.5
438.86832 315.72348 1935
506.81027 310.94507 1932
514.22516 312.53568 1933
439.32193 322.50201 1937
442.47681 325.95624 1932
466.06573 328.10068 1932
474.64355 328.10068 1932
485.36575 328.10068 1932
318.922 335.40201 1937
322.38766 336.67847 1932
468.21017 332.38959 1932
474.64355 332.38959 1932
483.59485 332.64764 1933.5
502.52139 336.67847 1932
318.34576 343.37985 1933.5
324.5321 347.4007 1932
485.36578 340.96735 1932
498.49033 345.43497 1933
322.88824 350.08795 1935
333.96979 350.4498 1937
342.57422 352.60202 1937
387.32162 356.53128 1935
391.01001 353.83408 1932
498.23245 353.83408 1932
378.73053 367.27017 1935
384.98877 364.90967 1937.6666
391.01001 364.5563 1932
376.97418 371.94977 1937
385.97009 372.33383 1939
395.7059 374.2352 1934
444.44601 377.16138 1934.3334
465.03671 376.18503 1936.6666
472.49908 375.27853 1932
487.51022 375.27853 1932
496.08801 373.13409 1932
505.99277 374.30215 1934.3334
514.16949 371.66174 1935.5
426.86221 380.94269 1939
434.57275 380.15683 1935
446.64127 383.55038 1937.6666
454.60538 382.89844 1938
466.1936 381.62366 1937
475.25885 384.35526 1934.5
483.84772 386.50302 1934.5
494.50449 384.85269 1937
503.3017 380.15683 1935
566.93372 239.88191 1947
333.53506 276.62061 1947
333.53506 283.10388 1947
337.16315 291.1489 1943
316.24628 334.97025 1947
315.59659 342.90869 1943
324.66519 356.33707 1945.6666
388.92294 368.7886 1943
394.04581 378.1922 1947
455.77936 377.41522 1943
423.42947 381.72855 1943
440.68277 386.04187 1943
464.40601 386.04187 1943
503.74606 386.43924 1945
510.74512 382.5144 1947
473.51733 390.75696 1945
493.4563 395.48099 1947
502.10071 391.15878 1947
332.29626 284.50943 1956.6666
334.73422 297.13492 1954
316.73358 335.48639 1950
316.73358 348.47293 1950
316.73358 352.80179 1950
334.73422 357.86325 1954
391.12479 379.55191 1954
515.86096 378.77493 1950
520.18982 378.77493 1950
415.83185 384.67551 1958
468.24353 391.76147 1950
477.87952 396.90283 1954
485.88803 396.36118 1951.3334
499.56821 396.90283 1954
508.24368 392.56509 1954
487.72339 400.41922 1950
493.44656 403.85864 1952.6666
500.59085 402.06195 1958
318.68271 328.8399 1962
314.32718 341.9064 1962
314.80783 351.1535 1965
344.81564 359.3284 1962
341.67484 360.61038 1969
388.37064 381.10583 1962
411.61142 386.83658 1969
516.85773 387.6391 1962
523.39099 385.46133 1962
475.48053 398.52783 1962
505.96899 398.52783 1962
515.46698 394.77502 1965
484.76218 404.8143 1964.3334
504.69385 405.77979 1965.5
495.83725 412.22366 1965
334.28549 296.24362 1977
321.11911 326.96518 1977
316.08948 335.06348 1973
307.95273 340.13156 1977
311.70956 346.01324 1973
359.88861 365.72287 1973
386.16812 383.24252 1973
474.7269 401.57468 1977
508.80573 409.52203 1973
513.18567 402.95215 1973
487.89331 410.35229 1977
492.28207 414.74106 1977
505.44849 414.74106 1977
313.60541 337.10135 1985
411.37689 390.76587 1989
525.12 394.38657 1985
480.08508 406.78485 1981
521.76276 406.21988 1989
515.26648 411.18253 1981
315.18085 336.58746 1995
333.23404 370.1716 1997
359.83319 370.1716 1997
385.65833 387.12741 1993
407.77991 391.55173 1993
532.72772 396.77078 1997
527.23633 400.40033 1993
487.41754 413.67328 1993
491.84186 418.0976 1993
513.96338 418.0976 1993
503.40506 422.94592 1995
510.56177 423.3699 1997
321.69675 327.63449 2008
316.60718 331.43057 2004
320.41507 330.76904 2000
307.09552 344.08859 2000
311.5354 348.52844 2000
315.97522 357.40814 2000
320.41507 361.84799 2000
338.85083 371.46915 2004
343.29959 371.46915 2004
354.41696 371.46915 2004
394.85147 394.10574 2006
403.75778 394.10574 2006
418.09183 397.36682 2000
534.59509 402.61026 2004
522.95306 417.76129 2002
517.83167 425.70193 2008
317.87106 328.28714 2012
313.71613 335.32208 2014
309.55231 342.36591 2016
322.97839 369.21817 2016
331.92917 373.69351 2016
532.2627 408.68399 2012
535.02948 413.56116 2014
523.32971 426.54996 2012
508.1994 431.44489 2014
310.93423 334.90366 2025
329.56534 376.10324 2029
346.89703 379.85715 2025
353.64005 377.60947 2025
360.38309 379.85715 2025
338.57379 380.60748 2029
397.12878 403.12863 2029
403.48926 402.73126 2027
416.4671 402.23456 2024.5
540.19714 411.32458 2025
312.1626 354.27917 2033
411.45102 403.92337 2033
510.73944 440.02826 2033
319.168 366.16464 2049
328.26526 379.81052 2049
354.16879 382.85849 2041
535.40363 428.16718 2041
542.05078 425.29681 2049
310.67606 348.64941 2053
311.43268 354.06714 2058
312.03799 345.60034 2062
