# .PCD v0.7 - Point Cloud Data file format
VERSION 0.7
FIELDS x y z
SIZE 4 4 4
TYPE F F F
COUNT 1 1 1
WIDTH 368
HEIGHT 1
VIEWPOINT 0 0 0 1 0 0 0
POINTS 368
DATA ascii
352.80591 728.05817 1958
349.17117 729.54553 1962
346.0459 732.14838 1969
354.06723 735.02319 1965
343.06305 686.84631 1977
344.90594 736.56934 1975
360.61823 735.12311 1977
348.85785 649.96667 1985
318.6528 677.76904 1989
325.57578 675.38849 1986.3334
331.89908 677.76904 1989
318.6528 684.39221 1989
324.78424 683.36108 1986
334.16638 686.68506 1985
340.04474 685.21912 1985
327.48367 693.22302 1989
335.40979 693.5661 1983.6666
293.77594 733.69122 1985
349.56082 735.16968 1989
355.96481 731.72656 1983.6666
362.07748 742.50433 1985
270.08304 757.24683 1989
353.97626 752.83142 1989
270.08304 761.66223 1989
350.26382 648.16187 1993
328.80087 667.1955 1997
335.11246 666.52734 1995
343.9744 666.52734 1995
326.58426 673.84534 1997
335.11469 675.38257 1995
341.75781 675.38037 1995
315.50125 684.92834 1997
336.99088 683.5564 1993
344.5961 684.01074 1994.3334
323.71796 692.40497 1993
407.77991 705.67798 1993
412.20419 705.67798 1993
408.59833 711.52747 1997
412.61786 713.03149 1995
359.11246 727.7995 1993
297.76849 733.69342 1997
302.20169 738.12659 1997
346.5336 738.12659 1997
354.68814 732.22382 1993
363.53674 734.43597 1993
294.9599 741.07251 1993
341.41519 743.28467 1993
366.11816 746.24048 1995
263.98969 758.76971 1993
270.62619 754.3454 1993
355.39999 755.85944 1997
266.20187 763.19403 1993
342.61435 654.87823 2000
336.01489 664.96674 2007
346.21362 666.41302 2008
323.28027 676.20734 2004
338.1745 672.6377 2000
345.57422 675.5976 2000
314.37836 682.88037 2004
347.05417 685.95728 2000
315.33194 693.72406 2005.3334
322.63501 697.05688 2000
290.49347 702.07391 2008
325.7153 704.10736 2005.3334
401.53342 703.60339 2006
409.21213 717.03619 2000
418.92801 716.24591 2004
423.79932 716.9585 2006
297.17987 728.81958 2008
414.20352 722.43799 2002.6666
424.22183 724.362 2008
287.11618 739.23547 2000
295.45178 732.32257 2001.3334
306.42856 738.23505 2005.3334
345.51947 736.26526 2004
353.71399 732.57568 2000
367.40277 733.31042 2002
370.73047 733.27716 2008
428.67944 737.7348 2008
433.13702 737.7348 2008
259.29019 742.19238 2008
263.74777 742.19238 2008
272.66299 742.19238 2008
285.46011 743.67676 2004
295.99591 748.11517 2000
305.18268 744.41907 2002
312.78152 744.4212 2008
338.85083 747.38708 2004
343.29959 740.71393 2004
369.99197 740.71393 2004
427.8255 742.93835 2004
431.98657 744.66388 2002.6666
266.1882 757.02295 2004
274.72061 754.53662 2001.3334
284.36002 753.57764 2006.6666
293.68976 754.07458 2007
306.09509 751.10767 2008
312.78152 751.10767 2008
345.86655 757.03711 2006
365.54321 758.50891 2004
370.73047 751.10767 2008
262.69699 765.87457 2000
354.41696 762.95764 2004
363.68369 763.71899 2006
376.67398 774.88159 2008
379.64572 786.76855 2008
384.1033 791.22614 2008
340.20355 658.80756 2012
286.60562 703.47247 2012
295.53864 703.47247 2012
305.6088 702.24176 2013.6
315.30881 702.91309 2014.6666
322.97839 709.34637 2016
266.77356 717.58453 2014
275.987 718.29712 2016
284.65729 717.58453 2014
404.49014 715.85815 2013.3334
264.79855 722.77246 2016
296.12619 727.24786 2016
300.60153 727.24786 2016
345.35526 727.24786 2016
307.01196 735.46826 2014
345.12979 737.2005 2014.6666
376.30917 737.70154 2014
264.53143 742.17249 2014
276.55185 747.63721 2014.6666
282.13913 748.13739 2012
316.58994 744.16083 2013.3334
322.65796 746.64337 2014
335.73703 748.13739 2012
340.20355 743.6709 2012
376.30917 746.64337 2014
264.79855 758.57544 2016
275.71545 753.35199 2014
282.70004 754.1001 2016
307.00751 757.82288 2014
316.80057 756.58496 2014.6666
322.33755 752.60388 2012
335.73703 752.60388 2012
371.46896 757.07031 2012
429.53339 752.60388 2012
259.8067 766.00336 2012
260.32321 763.05084 2016
344.67004 761.53687 2012
372.20749 763.05084 2016
358.78137 772.00159 2016
365.51364 771.95868 2012
374.07147 773.46899 2014
386.61234 778.42755 2013.3334
391.9552 775.70667 2014
367.73212 780.95233 2016
375.37717 783.91705 2015
383.37961 785.35809 2012
391.6008 785.42773 2016
390.10898 794.37842 2016
335.24149 666.73547 2022.5
306.43887 699.02704 2025
310.16647 697.30103 2020
301.94351 703.5224 2025
260.83972 719.72229 2020
288.74237 715.46899 2027
294.71457 715.82635 2021.6666
303.19345 713.42511 2023.3334
399.8515 712.99597 2020
257.49765 727.43323 2029
260.83972 724.20654 2020
272.9953 726.71619 2027
284.33606 726.95526 2027.6666
294.83328 725.10284 2022.5
303.84253 725.4538 2027.6666
405.33658 725.99915 2025
265.98068 732.74219 2025
272.33365 732.95795 2027.6666
286.77515 734.18958 2029
292.59113 731.83478 2022.5
306.06055 731.83478 2022.5
319.9249 739.48517 2025
343.79837 735.41718 2020
377.89734 731.83478 2022.5
405.33658 730.49451 2025
413.30426 733.17505 2020
272.99084 742.46326 2027
283.26096 742.14362 2020
319.13498 742.14362 2020
326.79031 744.25385 2025.75
336.0397 744.7287 2024.6
265.32394 753.35425 2020
328.50955 754.28381 2022.5
332.58774 753.35425 2020
377.43024 755.59631 2020
382.85983 752.97131 2025
316.89288 764.56488 2020
326.63013 764.1178 2024.75
335.12897 763.96509 2026.3334
379.11188 763.46704 2029
263.40466 776.73279 2022.5
316.05264 772.47552 2029
320.55685 772.47552 2029
357.2511 775.77545 2020
363.97751 778.01758 2020
378.73816 773.96619 2027
384.86545 774.96777 2027.6666
396.29199 775.34949 2024.75
401.63303 776.97974 2029
354.33856 781.48401 2029
365.59918 785.98822 2029
372.94598 786.98608 2020
396.34589 788.93402 2025
401.63303 785.98822 2029
368.91776 794.69202 2022.5
370.10339 790.49243 2029
396.34589 795.67712 2025
397.12878 804.00519 2029
282.25919 718.80591 2034.3334
307.64948 719.84113 2033
312.1626 715.32794 2033
255.74872 726.61072 2033
253.99092 737.08435 2037
276.05771 737.89349 2033
280.84686 736.36292 2035
402.4248 733.38043 2033
285.08395 743.91095 2033
335.38675 743.86731 2037
415.96414 744.66321 2033
379.85925 769.48529 2033
384.37238 760.45911 2033
394.17261 764.21631 2037
258.51291 773.26031 2037
308.25479 775.5213 2037
325.70193 776.25494 2033
332.47162 773.99841 2033
387.00705 772.4989 2035
393.39859 773.99841 2033
402.4248 773.99841 2033
325.70193 783.02466 2033
355.38422 788.3125 2035
361.80682 787.53772 2033
407.47168 784.0517 2035.6666
412.26056 782.30426 2037
366.6803 795.08655 2035
403.21661 795.87024 2037
303.73279 807.17523 2037
366.6803 804.1261 2035
403.21661 802.6532 2037
303.73279 811.6972 2037
367.04068 811.6972 2037
334.76337 667.99359 2047
268.60767 687.77203 2045
273.6817 684.56866 2049
304.62744 702.97076 2043
286.20575 718.14282 2041
266.0751 723.38184 2043
275.41284 724.09003 2045
308.86011 727.20459 2041
314.00519 724.09003 2045
391.18091 724.09003 2045
325.99094 739.15222 2049
387.39743 734.60358 2049
254.48969 745.328 2041
281.6749 745.328 2041
326.98358 740.79718 2041
331.51447 745.328 2041
406.5773 745.76245 2046.3334
413.0701 745.328 2041
394.94662 754.38977 2041
414.28442 754.33765 2047
393.43631 764.96173 2041
400.26041 760.40802 2045
390.41574 772.51331 2041
261.79364 787.64648 2045
300.38593 783.10675 2045
264.06793 792.18628 2045
336.37463 793.6814 2043
344.46967 793.07245 2042.6
354.62857 796.20654 2043.6666
363.23056 797.43304 2041
413.87967 792.18628 2045
304.92566 805.80548 2045
336.70395 803.53564 2045
346.45978 805.10736 2049
355.32266 804.58344 2047.6666
363.23056 808.76025 2041
404.00839 808.76025 2041
410.14056 802.83307 2049
298.1116 814.88501 2045
300.97348 811.9303 2049
358.12076 812.3869 2046.3334
363.23056 813.29108 2041
269.65845 695.02008 2053
276.83142 693.58765 2055.5
297.72687 705.85004 2058
302.29547 705.85004 2058
302.29547 710.41858 2058
265.41821 725.52905 2055.5
278.7735 722.36511 2053
320.56992 728.69305 2058
328.90607 736.03766 2053
319.79108 740.59521 2053
401.82623 749.71014 2053
404.10498 756.54645 2053
410.94122 754.2677 2053
311.43268 794.93787 2058
410.94122 799.84277 2053
421.07928 797.22217 2058
301.92825 807.65857 2055.5
310.67606 804.40033 2053
295.08643 814.50037 2055.5
347.13611 813.51532 2053
353.97238 815.79407 2053
411.94205 810.92798 2058
338.84436 820.06519 2058
345.69727 820.06519 2058
352.55017 820.06519 2058
330.34796 675.1795 2062
284.84912 696.45526 2064
296.30612 698.74402 2064
271.36597 704.00745 2066
280.53873 704.00745 2066
294.01294 705.61914 2064
303.47058 704.00745 2066
282.55591 714.7785 2064
275.41809 725.53186 2062
257.10815 730.10938 2062
389.85532 734.68683 2062
253.02052 745.28479 2066
321.81607 740.69836 2066
302.88303 796.48291 2062
302.88303 803.34912 2062
418.12976 804.90753 2066
289.15054 821.65912 2062
334.97302 647.65967 2076.5
344.82251 645.86505 2075.6667
337.68671 657.6698 2079
343.56592 654.06586 2077.3333
336.95578 667.75439 2074.5
342.30194 662.2851 2079
292.65213 695.12109 2076
304.05814 696.17999 2070
274.95486 708.43402 2070
284.14539 708.43402 2070
290.55283 703.75439 2072
304.05814 700.77527 2070
276.48663 714.56097 2070
290.83328 713.63971 2074
277.0209 720.5459 2074
323.84103 740.7439 2079
244.79202 761.98309 2074
418.9393 811.06122 2070
285.67715 824.84692 2070
338.33643 654.3111 2083
338.33643 663.55933 2083
282.84714 830.02716 2083
330.51007 647.84998 2092
332.26877 656.00897 2093.3333
334.03043 664.17682 2094.6667
335.15417 671.07043 2092
326.53809 655.40698 2106.3333
326.53809 663.19818 2106.3333
327.50159 672.10217 2102.5
267.1427 824.77478 2105
281.16153 838.79364 2105
324.44641 668.42535 2113
259.87878 817.30365 2122
269.30014 836.14636 2122
260.98099 825.50067 2131
275.81863 851.14642 2136
263.18542 837.24408 2149
267.45731 845.20917 2145
